# .PCD v.7 - Point Cloud Data file format
VERSION .7
FIELDS x y z
SIZE 4 4 4
TYPE F F F
COUNT 1 1 1
WIDTH 2992
HEIGHT 1
VIEWPOINT 0 0 0 1 0 0 0
POINTS 2992
DATA ascii
42232 25883 536
42063 25881 617
42020 25874 580
42028 25888 529
42116 25932 672
42127 25920 596
42086 25906 568
42027 25890 196
42026 25890 200
42046 25883 185
42081 25886 189
42026 25863 205
42262 25696 400
42163 25895 98
42182 25833 112
42185 25776 326
42209 25725 570
42273 25707 348
42192 25919 111
42085 26014 123
42048 26074 255
41887 26081 293
42113 25728 214
41925 26020 196
41903 26026 299
42185 25755 247
42356 25849 516
42199 25883 713
42163 25848 676
42227 25847 210
42301 25936 277
42315 25935 230
42318 25891 330
42054 25679 438
42064 25659 411
42055 25668 438
42050 25657 461
42053 25652 441
42016 25680 379
42001 25740 224
42001 25741 229
41964 25792 252
41969 25794 254
41990 25794 553
42165 25843 577
42192 25871 464
42221 25874 485
42223 25893 487
42212 25920 403
42065 26030 577
42110 26023 488
42169 25944 547
42071 25989 657
42210 25905 341
42219 25924 265
42255 25897 227
42229 25938 231
42162 25965 197
42165 25941 206
42217 25813 244
42134 25793 572
42187 25807 251
42175 25834 253
42160 25846 237
42094 25861 565
42127 25877 540
42124 25876 536
42177 25872 210
42178 25871 247
42220 25884 225
42184 25887 225
42226 25868 172
42235 25824 252
42244 25809 191
42279 25826 433
42151 25885 168
42149 25821 608
42110 25839 661
42232 25838 544
42228 25819 507
42198 25866 593
42081 25979 226
42193 25831 560
41928 25938 296
41968 25991 273
41969 25981 329
41971 25984 314
41978 25931 236
42200 25726 648
41942 25675 363
42095 25702 672
42015 25707 487
41894 25861 230
42069 25705 371
42108 25651 404
42083 25646 365
42230 26034 272
42194 25914 88
42170 25852 139
42067 25689 414
42306 25833 478
42262 25802 604
42223 25774 625
42146 25740 205
42156 25811 136
42181 25861 113
42159 25816 129
42152 25876 151
41983 25837 367
42306 25716 374
42003 25670 343
42025 26044 401
41867 25978 265
42186 25942 657
42075 25792 141
42074 25769 158
42060 25785 199
42065 25784 196
42118 25887 109
42088 25903 118
42072 25676 358
41868 26025 352
41990 26027 386
42264 25803 634
42207 25799 191
41942 25662 385
41932 25674 373
41957 25804 101
42078 25679 595
42061 25799 478
42151 25860 584
42042 26001 320
42150 25964 665
42082 25626 358
42243 25922 200
41911 25865 559
41820 25846 309
42228 25861 204
42222 25870 218
42175 25877 192
42002 26022 258
41949 26092 287
41935 25845 203
41908 25812 196
41909 25748 384
41833 25815 384
41855 25812 438
42100 25784 694
42211 25787 522
42205 26001 278
42118 26059 335
42139 26044 339
42204 25944 190
42200 25988 329
42139 25928 549
41989 25962 224
41969 25950 181
41998 26083 325
42340 25823 364
42287 25839 539
42386 25818 414
42462 25876 380
42492 25884 368
42350 25815 511
42399 25841 405
42339 25857 369
42477 25855 411
42404 25860 469
42426 25850 376
42465 25864 412
42473 25860 395
42436 25874 519
42403 25888 502
42449 25889 372
41962 26061 262
41898 25968 178
41905 25965 181
41938 26012 204
41911 25968 213
41813 25843 324
41845 25883 299
41871 25901 357
42137 25875 192
41973 26006 373
42249 25780 241
42173 25724 558
41943 25738 518
41817 25919 374
41876 25999 313
41858 25979 298
41861 25977 306
41997 26041 234
41965 26035 198
42190 25948 205
41949 25938 273
41968 25924 335
42047 25845 131
42269 25894 468
42321 25863 334
42137 25867 165
42138 25926 152
42154 25887 184
42174 25833 192
42183 25825 157
42121 25999 517
42073 25966 421
42095 25967 522
42129 26063 331
42138 26072 365
42116 26109 412
41815 25857 310
41874 25839 547
41884 25856 370
41865 25854 381
41830 25872 318
41917 25889 456
41896 25768 247
42034 25623 369
42293 25729 255
42297 25735 309
42307 25715 256
42303 25710 309
42277 25685 235
42053 26083 361
42038 26074 392
42016 26071 380
42017 25708 250
41937 25668 363
42372 25871 523
42321 25875 605
42260 25893 724
42297 25819 705
42284 25823 715
42350 25845 584
42276 25869 684
41956 25727 240
41957 25813 170
41956 25845 132
42084 25680 386
42098 25697 401
42108 25705 379
42119 25705 350
42100 25693 379
42091 25719 377
41990 26058 272
42023 26067 348
42336 25822 367
42239 25753 274
42243 25780 247
42186 25830 130
42234 25772 298
42244 25789 244
42246 25799 233
42234 25831 190
42151 26088 353
42143 26073 278
42126 25964 112
41930 25841 140
41940 26052 256
42004 25996 188
42012 25991 204
42001 25992 194
42032 25957 176
42202 25888 666
42275 25842 506
42256 25859 244
42336 25812 343
42249 25758 608
42062 25779 281
41983 25726 445
42160 25647 424
42271 25784 372
41850 25880 525
41881 25877 536
41811 25838 380
41898 25735 309
42247 25974 280
42184 25921 411
42218 25955 395
42059 26083 333
42091 25995 198
42071 26035 265
42070 25697 661
42037 25706 601
42007 25685 493
42011 25672 403
42160 25682 320
42208 25757 330
42174 25725 533
42207 25746 527
42239 25776 632
42312 25801 383
42287 25817 325
42294 25814 405
41857 25805 304
41965 25754 364
42053 26014 198
42066 26070 283
42041 26001 228
41975 25949 256
42053 25707 703
42193 25666 369
42070 25846 83
42069 25810 112
42042 25883 142
42190 25658 500
42211 25726 269
42214 25784 190
42231 25797 187
42022 25937 125
41961 25967 130
41952 25993 189
41949 25991 192
41953 25982 215
41951 25969 203
41942 25970 199
41975 25944 199
42212 25817 551
42074 25885 144
42093 25880 170
42212 25809 578
42185 25818 563
42213 25794 466
42015 25826 158
42031 25800 136
42071 25794 105
42066 25768 175
42125 25848 137
42118 25806 168
42093 25828 172
42142 25867 202
42130 25883 184
42107 25911 585
42138 25939 565
42210 26004 518
42126 26042 499
42251 25998 628
42176 25683 377
42140 25713 325
42265 25926 273
42250 25931 510
42234 25913 236
42168 25866 200
42200 25919 203
42203 25979 558
42182 26004 576
42200 25976 540
42188 26013 613
42040 26067 683
42128 26034 674
41928 25691 377
41901 25702 379
42020 25705 521
42253 25858 252
42114 25977 163
42096 25985 167
42149 26049 229
42116 26068 317
42147 25979 340
42019 26059 371
42228 25895 685
42164 25979 251
42120 25974 159
42120 25950 156
42141 25799 161
42121 26132 361
42213 25933 380
42125 25958 543
42068 25937 600
42124 25869 264
42164 25847 261
42166 25856 309
42158 25808 241
42277 25843 379
42231 25808 260
42169 25867 134
42184 25675 490
42154 25685 532
41846 25885 275
41907 25905 567
41891 25891 474
41849 25891 368
41932 25826 602
41856 25871 357
41827 25897 361
41940 25959 172
41983 25959 146
41972 26027 281
41973 26048 254
41985 26044 280
42100 26007 665
41948 26079 298
42128 25970 662
41947 26069 344
41936 26093 338
41927 26065 344
41935 26040 241
41905 25662 255
41943 25681 372
42178 25887 153
42159 25856 150
42208 25808 218
42213 25793 230
42180 25803 207
41966 25994 218
42004 25952 148
41992 25956 162
41917 26060 226
41986 25872 148
42011 25853 324
42010 25878 258
41986 25968 291
42032 26067 310
42059 26056 261
42200 25960 207
42191 25989 256
42170 26006 447
42479 25935 486
42231 25967 329
42238 25958 256
41840 25815 304
42252 25951 279
42213 26016 299
42267 25904 280
42299 25915 320
42265 25909 331
42206 25836 185
42103 25874 676
42065 25861 662
42170 25906 715
42050 25856 694
42300 25839 457
42271 25846 666
42229 25835 679
41961 25929 391
42061 25788 201
42090 25757 229
42092 25781 189
42091 25761 193
42124 25792 179
42124 25782 189
42099 25796 206
42107 25767 189
42125 25748 234
42116 25741 249
42113 25726 236
42117 25741 233
42118 25737 196
42166 25751 248
42180 25827 196
42151 25816 162
42155 25822 168
42163 25810 209
42194 25789 233
42176 25766 220
42198 25783 213
42044 25758 525
41926 25800 565
41984 25819 636
42031 25796 563
42067 25807 227
42099 25769 225
42145 25770 218
42212 25804 199
41850 25917 333
41838 25894 303
41876 25878 266
41920 25812 639
41858 25942 416
41901 25940 546
41949 25953 580
41875 25919 472
41823 25882 371
41823 25891 357
42091 25768 359
42138 25747 270
42060 25708 353
41981 25722 439
42012 25741 383
42233 25786 174
42185 25812 297
42198 25820 253
42229 25811 125
42175 25670 331
42168 25677 325
42159 25620 371
42133 25809 725
41832 25873 303
41902 25979 155
41891 25947 153
41885 25941 163
41882 25869 163
42114 26109 372
42104 26068 367
41848 25836 346
41955 25965 275
41970 25989 384
41951 25964 244
41902 25893 225
41899 25879 284
41901 25860 301
41920 25897 291
41913 25911 240
41825 25897 340
41832 25841 275
41840 25871 405
41876 25846 578
41830 25874 379
42258 25844 212
42258 25785 235
42252 25790 236
42259 25796 216
42242 25782 251
42026 26014 185
42069 26034 222
42257 25934 282
41997 25778 397
42007 25836 290
42016 25843 331
42004 25829 367
42025 25622 371
42022 25970 345
42078 25887 396
42087 25757 170
42195 26007 502
41958 25738 272
42052 25818 127
41979 25712 342
42137 25821 225
42085 25768 291
41974 25671 306
41905 25937 144
41817 25778 408
42055 25990 101
42048 25984 154
41994 25925 130
42004 25905 106
42018 25874 72
41826 25775 405
41834 25794 288
41963 25897 97
41966 25779 172
41966 25755 266
41975 25756 279
41991 25810 196
41982 25808 174
41972 25852 102
41974 25940 169
42012 26055 259
42092 25777 588
41944 25946 178
41961 25914 124
42016 25727 354
42019 25678 319
41961 25937 508
41996 26011 233
41969 26017 250
42003 25958 111
42075 26074 310
42092 26105 379
42084 26113 367
42097 26114 350
42087 26116 384
42218 25727 372
42213 25843 226
42193 25887 210
42138 25969 577
42128 25977 651
42136 25968 657
42242 25929 414
42133 25933 653
42206 25915 478
42195 25887 408
42207 25882 329
42200 25839 233
42218 25863 335
42174 25841 170
42109 25743 186
41966 25745 574
41957 25764 607
42230 25825 288
42267 25835 146
41951 25900 283
41952 25861 313
41954 25882 337
41944 25858 271
41944 25820 258
41977 25754 153
41945 26026 292
42382 25843 315
42383 25829 357
42181 25798 233
42033 25691 500
42084 25711 655
42110 25732 698
42328 25818 388
42351 25803 346
42358 25824 417
42355 25837 341
42020 25736 725
41935 25788 595
41934 25793 555
42063 25723 655
42350 25859 356
42381 25848 351
42278 25834 565
41965 25897 119
41997 25831 599
42293 25897 378
42264 26015 375
41994 25821 320
41997 25837 257
41953 26097 346
41885 25788 372
41885 25797 440
42045 25884 613
42084 25903 604
42096 25915 218
42151 25952 233
42173 25957 259
42120 25942 224
42066 25909 221
41942 25758 429
41929 25762 343
41892 25874 515
42274 25834 489
42303 25834 381
42326 25839 357
42283 25840 435
41981 25684 341
42294 25927 406
41888 25911 480
41958 25954 280
42310 25768 244
42252 25833 194
41924 25828 576
42015 25793 716
41934 25846 574
41946 25783 646
41953 25777 638
41861 25818 464
42237 26002 401
42235 25995 516
42267 25802 387
42313 25821 366
42337 25830 238
41836 25816 309
41824 25827 363
41826 25817 296
41843 25828 335
42003 25768 408
41992 25811 342
41987 25868 372
42138 25854 724
42153 25873 672
42250 25819 531
42180 25865 617
42186 25980 229
42165 26003 205
42126 25912 118
42128 25894 141
42165 25881 163
42160 25928 181
42177 25896 135
42165 25900 71
42116 25780 108
42104 25792 114
42241 25717 303
42166 25661 355
42241 25713 266
42268 25764 270
42218 25732 573
42187 25861 181
42157 25822 165
41987 25832 676
42017 25682 505
42128 25775 163
41841 25886 358
41947 25779 625
41905 25762 222
41893 25755 247
42051 25760 474
41996 25728 384
42291 25801 384
42285 25804 387
42276 25968 340
42274 25947 330
42030 26076 399
42016 26059 385
41934 25999 376
41872 25931 278
42002 25787 657
42082 25814 152
41935 25880 595
41932 25811 516
41869 25842 495
41853 25852 446
41862 25862 525
41887 25866 605
41879 25853 525
41839 25841 315
41837 25852 274
41933 25829 660
42222 25765 582
42116 25715 670
42179 25783 643
42287 25915 353
42277 25867 284
42175 25988 204
42173 25868 207
42216 25830 251
42195 25830 239
42157 25910 214
42053 25770 408
42159 25769 455
42060 25767 356
42052 25703 390
41957 25907 221
41941 25928 262
42274 25910 343
42294 25927 402
42274 25917 427
42256 25913 412
42245 25908 456
42234 25888 587
42256 25921 506
42256 25901 500
42267 25908 537
42298 25902 352
42282 25898 357
42197 25849 262
42194 25855 247
42191 25829 177
42170 25836 163
42109 25872 165
42057 25898 175
42049 25865 203
42008 25822 257
41956 25667 399
42274 25913 220
41852 25810 370
41839 25835 409
42069 26047 229
42048 26011 196
42012 25955 147
41962 25891 159
41939 25854 607
42032 26047 140
42157 25818 130
41965 26067 276
42030 26053 240
42010 26033 216
42070 25945 146
42078 25878 143
42081 25879 158
42077 25864 148
42034 25804 208
42008 25695 543
42061 25923 112
41950 26091 334
42315 25872 346
42300 25856 325
42289 25862 311
42313 25832 335
42310 25815 310
42036 26012 281
41997 26029 387
42054 25989 254
42064 25994 204
42045 26011 312
41887 25820 352
42242 25955 247
41740 26129 382
41761 26115 403
41866 26029 336
41853 26023 335
42165 25904 592
42005 25967 703
41833 25883 350
42237 25720 351
42240 25714 356
41867 25923 238
42093 25749 309
42034 25794 493
42012 25848 266
42040 25848 251
42093 25903 204
42133 25689 364
42137 25686 276
42466 25896 368
41966 25946 112
41976 25848 68
41958 25772 146
41903 25918 162
41896 26011 350
42164 25862 610
42291 25873 397
42012 25642 360
42005 25628 362
42040 25702 274
42038 25697 285
42063 25722 227
42159 25917 207
42194 25937 381
41992 26102 364
42072 26066 284
42096 26066 352
42108 26062 335
42279 25951 369
42306 25888 460
42259 25915 529
42265 25931 514
42018 25998 175
42018 26000 213
42026 26006 242
42025 26020 189
42042 26026 180
42006 25881 55
42034 25946 90
42079 25998 348
42208 25948 276
42184 25954 222
42158 25949 200
42163 25937 249
42206 25957 287
42177 25958 441
42030 26015 378
42167 25802 267
42302 25976 350
42459 25862 382
42465 25860 431
41819 25847 365
41877 25707 337
42242 25949 428
42174 25951 232
42164 25836 253
42159 25835 223
42113 25860 202
42081 25879 169
42049 25885 178
42072 25844 194
42051 25778 251
42053 25748 188
42260 25766 511
42338 25803 367
42080 26001 171
42112 25969 484
42196 25915 562
42230 25800 211
41990 25697 444
41944 25669 362
41998 25920 496
42265 25763 523
41812 25811 383
41921 25673 378
42140 25766 259
42216 25765 326
42246 26001 302
42127 26112 365
42090 25692 462
41968 25684 460
42189 25715 599
42065 25721 573
41959 25859 164
42038 25999 187
41964 25969 183
41967 25886 172
42026 25875 161
42016 25917 155
41934 25901 168
41943 25881 192
42175 25843 676
42218 25830 577
41908 25927 167
41910 25987 224
42207 25964 353
42190 25944 304
42205 25961 324
42135 25944 564
41905 25841 193
42016 25933 181
42027 25819 185
41954 25698 339
41955 25694 330
41967 25677 295
42078 25731 282
42009 25714 242
42269 25738 386
42115 25688 578
42144 25719 644
42030 25671 402
41999 25661 343
42009 25657 340
42287 25757 381
42206 25947 308
42078 25880 139
42044 25903 108
42017 25992 201
42235 25811 267
42142 25816 226
42311 25823 341
42274 25850 356
42245 25864 552
42202 25836 550
41876 25869 225
41986 25915 190
42043 26038 606
42044 25950 727
41956 25705 211
41933 25705 287
42113 26025 606
42221 26000 273
42144 25871 566
42061 25707 392
42039 25724 368
42248 25879 236
42245 25875 249
42236 25856 229
42230 25815 250
42195 25812 519
42126 25790 611
42014 25779 618
41969 25791 644
41897 25855 606
41890 25802 333
41881 25775 321
41886 25802 291
41864 25811 333
41906 25768 239
42259 25815 207
42217 25939 214
42202 25957 222
42154 25975 320
42195 26004 240
42205 25950 369
42218 25908 309
42157 25855 212
42121 25875 163
42115 25868 174
42103 26054 352
42109 26048 360
42073 26104 343
42096 25932 169
42468 25927 401
42198 25711 423
42170 25739 507
41812 25877 335
41829 25897 369
41815 25899 422
42031 25893 222
42144 25877 148
42149 25837 266
42124 25823 499
42111 25828 564
42093 25824 573
42111 25835 518
42071 25807 560
42121 25831 601
42216 25918 553
42031 25633 364
42026 25633 372
41962 25685 340
42256 25874 257
42274 25865 269
41996 25959 248
41998 25959 271
41965 25957 323
41989 25942 219
42394 25830 525
42033 26123 330
42074 26095 284
42074 26099 359
42030 26038 253
42084 26100 320
42093 26076 478
42160 25710 309
42161 25704 301
42166 25726 333
42188 25645 545
42190 25772 293
42267 25782 577
41935 25805 247
41943 25774 259
41988 25776 620
42171 25703 423
42179 25699 413
41960 25831 170
42031 25783 237
42021 25727 551
42107 25744 572
42172 25793 184
42093 25786 626
42085 25810 143
42055 25741 189
42059 25744 203
42097 25806 150
42074 25757 211
42146 25792 201
42135 25775 195
42087 25732 272
42043 25756 194
42091 25745 273
42074 25743 251
42126 25850 109
42064 25923 66
42076 25893 53
42078 25974 124
42089 25777 180
42074 25742 281
42063 25969 151
42060 25995 182
42077 25884 119
41938 25782 556
41917 25778 504
41921 25783 573
41977 25782 570
42007 25752 580
41971 25771 536
41962 25784 570
42154 25780 622
42253 25810 668
42071 25802 679
42275 25786 366
42289 25791 365
42082 25812 723
41998 25809 219
42246 25804 313
42087 25956 255
42312 25862 435
42073 25950 237
42052 25994 328
42032 26028 434
42061 25989 279
42096 25913 75
42126 26089 350
42021 25644 491
42430 25846 335
42228 25761 522
41841 25875 388
42127 25804 186
42108 25825 162
42095 25842 139
42050 25936 146
42088 25765 180
42123 25789 181
42102 25758 265
42112 25760 276
42100 25837 195
42189 25834 226
42114 25843 217
42117 25836 227
42135 25836 218
42191 25820 281
42170 25813 265
42162 25816 234
42177 25819 249
42185 25824 229
42127 26049 313
42316 25809 394
42099 25766 722
42113 26035 188
42204 25807 197
42370 25912 609
41955 25842 628
42082 25822 562
42094 25822 245
42063 25826 229
42099 25837 170
42131 25809 189
42111 25804 207
42101 25822 212
42063 25847 188
41993 25894 196
41954 25845 605
42074 25815 262
42087 25810 235
42116 25806 229
42142 25803 222
42152 25795 222
42155 25795 220
42194 25780 264
42187 25804 216
42187 25801 191
42201 25793 216
42192 25786 239
42141 25869 167
41719 26157 372
41713 26146 368
41949 25674 388
42261 26002 343
42187 25849 138
42203 25916 158
42111 25757 310
42103 25759 319
42140 25731 353
42140 25729 338
42137 25718 419
42108 25741 366
42186 25840 193
42205 25865 181
42262 25815 263
42228 25813 250
42199 25785 316
42182 25796 537
42215 25797 245
42213 25801 273
42181 25791 259
42172 25791 267
42167 25875 155
42248 25881 236
42245 25850 247
42215 25837 241
42242 25921 594
42276 25937 394
42268 25940 522
42213 25918 553
42203 25931 663
42111 25684 572
42270 25931 462
42248 25928 500
42233 25934 504
42224 25935 529
42202 25934 571
42170 25939 654
42199 25938 562
42137 25953 613
42196 25922 577
42190 25933 567
42236 25925 447
42273 25950 405
42226 25933 479
42178 25997 525
42194 25992 388
42172 26037 466
42306 25792 359
42306 25795 372
42282 25800 555
41832 25884 477
42036 25928 178
42066 25767 174
42074 25762 212
42040 25687 275
42274 25940 351
42295 25949 326
42000 26034 222
42069 26045 364
42270 25928 365
42281 25883 214
42261 25928 298
42318 25856 625
41850 25853 634
41965 25705 331
42006 25700 285
42026 25743 492
41972 25814 407
42144 25885 628
42110 25841 690
42185 25799 672
42122 25782 599
42147 25761 611
42089 25744 577
42033 25783 531
42089 25706 394
41868 25933 207
41884 25971 308
42096 25716 456
42105 25750 410
42095 25715 480
42106 25722 433
42131 25760 494
42209 25851 393
42160 25787 492
42122 26078 310
42134 26099 369
41949 25814 231
42191 25924 650
42040 25960 646
42190 25992 556
42056 26082 335
42122 25890 75
42067 25950 126
42093 26007 208
41970 26061 324
42008 26047 282
42064 26022 203
42019 26047 244
41957 26072 276
41982 25928 106
42012 25879 151
41977 25871 364
42021 26063 179
42114 25949 107
42046 25853 120
42062 25887 93
42155 25857 151
42142 25898 131
42260 25842 222
42240 25878 236
42241 25928 335
42139 25730 318
42180 25750 255
42015 25699 519
42004 25748 228
41964 25737 286
42162 25736 302
42123 25728 284
42204 25892 135
42221 25911 98
42176 25702 334
42172 25708 364
42027 25982 309
42049 25995 255
42054 26024 207
42062 26021 222
42283 25727 382
42263 25721 384
42257 25715 490
42263 25730 409
42203 25733 555
42053 25779 247
42146 25684 498
42075 25667 397
41935 25857 259
41913 25870 306
41929 25857 271
41921 25852 282
41918 25828 251
41976 25838 186
41973 26107 374
41976 26082 372
41986 26082 434
41989 25859 374
41919 25840 339
41935 25801 493
41965 25798 384
41965 25746 405
42225 25998 357
42163 26000 520
42112 25997 560
42176 25858 606
42230 25905 336
42247 25905 296
42004 26049 240
42011 26024 222
42007 26050 267
42037 26075 302
42034 26061 280
42033 26068 246
41971 26140 319
42049 26034 419
42142 25999 453
42125 25983 508
42155 25790 192
42228 25739 311
41819 26013 293
41907 26003 456
41982 25991 233
42244 25922 400
42133 25953 583
42094 25943 650
42123 25925 609
42002 25936 43
41954 26077 223
41992 26087 285
42061 26052 229
42138 25768 171
42133 25938 116
42158 25880 110
42161 25753 182
42129 25782 151
42252 26073 335
42103 26100 313
41971 25790 673
41966 25805 635
41862 25831 383
41867 25834 394
41870 25827 363
42093 25791 698
42137 25823 659
42245 25812 471
42181 25819 617
42039 25895 657
42005 26012 208
42299 25936 352
42051 25929 186
42456 25931 457
42246 25922 650
42223 25938 306
42215 25933 286
42176 25955 244
42187 25949 280
42110 25994 196
42191 25930 235
42181 25948 265
42258 25925 513
42001 25878 104
41964 25767 222
41969 25825 135
42040 25851 122
42142 26072 346
42152 26075 375
42108 25714 304
42054 25777 194
42039 25844 145
42044 25776 145
42032 25803 395
41848 25810 368
41847 25833 361
41798 25914 345
41817 25903 379
41822 25879 453
41885 25919 439
42177 25962 564
42244 25952 504
42189 25968 574
42222 25963 526
42225 25924 226
41948 25620 540
42125 26111 357
42120 26090 357
42147 25971 267
42156 25880 477
42095 25885 533
42099 25883 467
42090 25871 452
41891 25815 540
42046 25859 696
42052 25835 639
42091 25634 342
42068 25633 357
41907 25696 381
41984 25772 223
42061 25875 168
41944 25831 540
41917 26063 375
41898 26067 354
41892 26019 255
41917 26002 226
41925 25871 228
41929 25848 513
42008 25965 665
41993 25924 690
41955 25988 154
41934 26008 180
41955 25853 269
41992 25783 372
41988 25810 390
42036 25763 464
42091 25748 376
42057 25743 371
42027 25770 548
42025 25792 536
42113 25708 378
42098 25735 412
42040 25754 412
42008 25871 255
41931 25949 185
41918 25994 251
42038 25989 274
42000 26084 370
42011 26036 385
42032 26059 461
41936 25853 547
41870 25847 504
41899 25803 243
41970 25746 202
41972 25669 368
41975 25624 449
41948 26086 281
41926 25906 93
41966 25905 121
42102 26036 239
41820 25762 358
41882 25727 353
41952 25685 350
41974 25765 117
42028 25791 375
42024 25779 386
42118 25663 226
42422 25875 493
42160 25909 170
42164 25786 230
42172 25762 249
42163 25755 238
42201 25862 197
42285 25706 372
42092 25621 375
42057 25608 454
41804 25805 349
42072 26070 381
42073 26098 341
42065 26086 352
42052 26062 347
42053 26066 314
42065 26085 322
42090 26092 326
42098 26069 267
42087 26084 361
42063 26062 322
42058 26028 350
41940 26050 544
41977 25929 90
41846 26052 315
41851 26064 309
41859 26060 339
41952 25796 277
41984 25768 324
41981 25789 363
42060 25867 486
42108 25869 256
42159 25837 169
42069 26128 447
42050 26094 335
42069 26109 369
42292 25800 260
41999 25724 350
42125 25790 223
42111 25777 215
42184 25867 280
42082 25748 246
42161 25774 716
42035 25635 394
42008 25653 424
42002 25701 385
42070 25705 321
42057 25721 366
42006 25692 373
42041 25671 346
42045 25697 370
42047 25700 350
41994 25653 450
41948 25695 389
42038 25794 570
41887 25698 336
41880 25848 338
41957 25804 551
41952 25759 302
41972 25762 526
42258 25739 634
42244 25743 547
42183 25793 200
42203 25849 75
42138 25702 328
42010 25715 558
42265 25967 296
42480 25910 372
42327 25890 471
41859 25911 364
41858 25905 453
42188 25910 650
42122 25802 559
42181 25850 602
42016 25838 154
42208 25837 148
42199 25836 162
42157 25842 111
42183 25823 137
42152 25913 154
42201 25976 284
42166 25974 207
42276 25792 365
42069 25679 377
42165 25803 148
42129 25715 221
42070 25730 406
41874 26001 203
42193 25843 202
42184 25867 181
42022 25745 397
42161 25773 213
42118 25867 123
42066 25956 172
42048 25966 166
42048 25998 160
41993 26074 308
42371 25856 455
41967 26017 165
41975 25693 415
42007 25670 397
42026 26024 367
42202 25955 407
42136 26001 576
42245 25925 368
42180 25968 375
42185 25825 207
42223 25971 278
42232 25974 263
42230 25958 291
42235 25950 207
42277 25929 235
41985 26049 283
42227 25990 286
41957 25909 536
41993 25809 508
42002 25829 366
42021 25873 461
41980 25981 183
42003 25797 373
41923 25780 169
41870 25978 276
41864 25953 269
41832 25919 384
41852 25931 419
41967 26057 291
41908 26036 361
41913 26047 279
41902 26035 366
41949 26084 366
42196 25711 342
42210 25710 357
42198 25739 272
42228 25744 306
42208 25750 299
42189 25740 304
42141 25791 300
42060 25812 386
42050 25810 373
42020 25880 370
42013 25831 409
42014 25819 389
42001 25902 126
42028 25772 554
42103 25730 598
42198 25704 405
42201 25699 426
41985 26082 286
42227 25791 235
42220 25814 185
42137 25891 106
42029 25848 119
42028 25845 134
42022 25851 145
42029 25864 123
41996 25814 183
41938 25804 249
41931 25891 276
41939 25693 366
41983 25678 400
42022 25655 409
42197 25963 520
42251 25897 328
42223 25906 192
41975 26091 320
41994 26093 383
42029 26091 385
42045 26103 370
42052 26088 375
42263 25990 336
42272 25974 331
42279 25928 262
41811 25866 402
41826 25871 368
41943 25976 220
41976 26027 280
42113 25751 670
42090 25733 624
42076 25746 654
42028 25743 570
42242 25853 190
42224 25866 143
42168 25941 150
42180 25843 180
42194 25819 226
42189 25820 211
42185 25818 208
42115 25877 211
41891 25969 233
41947 26035 266
42017 25957 77
42157 25808 210
42119 25872 192
42123 25769 234
41963 25853 503
41903 25860 351
42011 25909 334
41932 25661 336
41998 25671 477
42186 25675 391
42163 25660 372
42326 25910 374
42113 25743 676
42216 25803 621
42259 25867 558
42174 25842 730
42194 25881 699
42296 25920 458
42326 25937 375
42355 25924 338
42311 25951 363
42297 25913 291
42277 25894 262
42309 25924 325
42077 25748 602
42096 25710 569
41934 25683 369
41913 25675 378
41917 25725 370
41890 25725 386
41893 25720 355
42010 25976 462
42021 25934 203
42036 25718 486
41918 25693 372
42012 25717 551
42168 25854 251
42146 26008 168
42006 26003 639
41867 25902 214
42075 26085 379
42093 26078 552
42245 25988 591
42327 25947 385
41924 26037 299
41994 25953 150
42045 25870 127
42312 25931 332
42071 25660 407
42085 25682 384
42061 25692 378
42039 25735 290
42036 25765 193
41966 26022 388
42196 25948 593
42205 25941 453
42206 25953 524
42198 25944 533
42211 25879 572
42238 25955 215
41892 25826 559
41826 25923 419
42065 25859 668
42099 25834 684
41863 25842 444
41961 25864 664
41902 25823 466
41949 25834 445
41834 25787 371
42042 25942 61
41956 25683 407
42296 25926 342
42298 25925 353
42307 25928 328
42278 25922 339
42275 25891 317
42269 25903 333
42290 25933 317
42221 25961 478
42205 25954 544
42181 25963 590
42110 25977 176
42130 25955 176
42193 25936 199
41816 25875 368
42128 25751 248
42177 25707 278
42173 25691 384
42231 26021 317
42247 26043 278
42292 25894 171
42325 25811 262
42389 25768 470
42025 25660 473
42079 25676 470
42082 25674 457
42090 25648 484
42068 25680 333
42133 25947 549
42130 25963 653
42215 26004 308
42219 25988 272
42211 26076 277
42209 25927 397
41973 26064 326
42042 26054 226
42258 25872 567
42328 25840 370
41952 25717 341
42037 25938 122
42179 25958 562
42180 25942 579
42193 25945 572
41930 26055 371
42298 25756 386
42066 26092 380
42066 26091 375
42166 25673 328
42162 25683 343
42114 25733 218
42083 25741 194
41951 25717 457
41930 25705 469
42001 25732 611
41894 25773 450
41892 25780 408
41915 25776 539
42121 25695 548
42098 25693 540
42181 25861 150
42134 25862 190
42120 25853 130
42064 25890 92
42078 25829 135
42073 26080 390
42106 26089 361
42097 26096 358
42071 26097 355
41823 25894 442
41849 25896 409
42006 25912 702
42007 25914 648
42065 25945 615
42091 25957 213
42174 25861 169
42216 25830 220
42183 25811 240
42222 25893 283
42252 25931 280
42234 25897 593
42023 25701 286
42007 25750 211
42015 25800 141
42165 25853 709
42278 25798 266
42289 25817 261
42253 25774 243
42234 25763 266
42273 25803 244
41919 26030 225
41934 26078 320
42235 25962 280
42162 25674 397
42075 25945 60
42062 25903 107
42050 25983 148
42059 25983 157
42058 25966 160
42070 25941 130
42056 26092 323
42052 26056 256
42077 26022 157
42052 25732 486
42001 25759 505
41992 25802 624
42082 25816 642
42155 25700 519
42042 25726 599
42108 25835 97
42069 25984 172
41996 25999 260
41961 26006 269
41988 26003 247
41889 26012 317
41877 25989 289
42041 25733 379
42068 25828 192
42037 25797 215
42050 25912 262
41982 26054 366
41993 26016 391
41959 26003 274
41961 26005 280
41963 26003 363
42027 26039 378
42074 25821 104
42300 25828 262
42303 25910 368
42338 25958 350
42258 25878 228
42247 25968 489
42232 25955 386
42268 25965 410
42251 25958 496
42277 25947 379
42266 25974 396
42070 25988 82
41879 25780 372
41887 25798 339
41889 25826 375
41961 25884 409
42127 25746 359
42180 25785 270
42210 25840 268
42251 25878 225
41905 25942 307
42096 25735 222
42141 25874 635
42043 25802 689
41834 25870 391
41932 25912 652
42149 26007 580
42184 25962 506
42156 25715 337
42158 25739 318
42068 25905 262
42093 25860 201
41907 25862 378
42033 25833 585
42202 25918 283
42208 25792 347
41754 26120 487
41868 26111 672
42064 26075 647
41979 25830 282
42297 25858 487
42215 25817 269
42073 25986 159
42023 25933 120
41912 25826 374
41920 25834 329
42162 25817 680
42237 25881 225
42226 25875 234
42274 25842 237
42285 25838 254
42284 25844 283
42272 25872 204
42268 25831 235
42262 25816 244
42236 25796 262
42253 25811 231
42264 25860 218
42249 25875 250
41798 26158 401
42163 25782 346
42256 25905 239
42130 25875 233
42247 25894 255
42297 25905 247
42247 25781 182
42029 25942 137
42021 25653 447
42193 25723 682
42236 25781 273
42236 25745 251
42347 25860 631
42342 25867 485
42402 25859 498
42288 25839 613
42252 25685 372
42191 25794 205
42135 25830 133
42055 25861 97
42055 25825 149
42311 25926 311
42309 25967 320
42293 25928 342
42288 25934 373
42310 25967 346
41817 25892 390
41819 25892 363
42040 26100 378
41983 25756 285
41998 25770 256
41929 25753 239
41929 25800 164
41911 26019 236
42055 25674 374
42052 25659 347
42087 25779 148
42017 25854 155
42198 25816 180
42166 25849 87
42167 25949 201
42182 25971 226
42161 25971 229
42181 25928 197
42131 26057 256
42087 25847 125
42053 25760 416
42080 25816 178
42110 25950 79
42093 25749 283
42009 26083 296
42007 26031 287
41978 25946 361
41978 25932 347
41979 25960 285
41975 25931 460
41966 25961 374
42141 25823 167
42080 25876 145
42016 26025 325
42033 26029 383
42127 25970 280
42124 25968 260
42107 25837 108
42104 25914 144
42088 25882 112
42054 25940 100
42086 25984 167
42092 25949 138
42050 25972 460
42025 25992 449
41981 25858 177
41998 25980 396
42279 25731 338
42031 25983 445
42184 25929 239
42154 25972 196
42091 25874 46
42108 25924 165
42110 25880 174
42150 25924 176
42045 25872 694
42173 25702 266
42153 25673 381
42214 25727 408
42202 25741 184
42188 25762 275
42074 25696 411
42058 25707 357
42040 25709 357
42240 25929 358
42264 25920 422
42252 25920 445
41750 26122 439
41745 26126 443
41733 26143 354
41980 25911 218
41984 25943 277
41836 25891 363
41834 25882 350
41934 25838 607
41808 25895 367
41891 25931 558
41984 25926 656
41923 25892 579
41841 25904 324
41877 25981 258
41991 25799 225
41977 25797 136
42080 25651 383
42156 25766 156
42153 25765 183
42187 25951 184
41832 25863 269
41906 25871 133
42128 25719 289
42143 25725 276
41910 25884 144
41926 25866 112
41917 25880 129
41962 25808 626
42156 25744 245
42200 25806 190
42156 25851 170
42098 26004 145
42133 25744 251
42173 25705 285
42166 25718 282
42179 25991 204
42025 25810 416
42022 25820 412
41990 25892 466
42007 25943 411
41986 25925 507
42413 25911 523
42482 25916 361
42267 25993 318
41998 25843 141
41997 26077 424
41982 26114 363
42144 25986 679
42204 25952 612
42156 25997 702
41971 26083 364
41917 26077 386
41913 26048 317
42228 25766 515
42254 25766 457
41829 25847 402
41874 25966 299
41833 25990 305
42226 25881 192
42063 26049 510
42026 26093 376
41939 25668 346
42009 26034 159
42039 25768 361
42073 26009 142
41956 25705 388
41948 25683 376
41943 25693 354
41960 25691 375
42201 25738 229
42325 25866 653
42030 25890 269
42014 26104 362
42027 26029 350
42062 25818 123
42098 25697 280
42055 25708 325
42010 25800 147
41828 25880 447
41806 25879 401
41800 25882 407
41892 26030 456
42210 25865 218
42071 25734 150
42032 25663 446
41972 25709 590
41862 25792 362
42247 25686 458
42002 26062 252
41916 25751 265
41868 25980 309
41859 25994 288
41987 25661 398
42214 25838 177
42226 25821 196
42184 25905 163
42211 25927 211
41948 25687 384
41856 25754 348
41809 25808 208
41927 25907 616
42227 25927 397
42235 25899 361
42203 25812 285
42153 25923 530
42150 25920 569
42220 25885 343
42233 25927 445
42273 25948 361
41859 25820 380
41835 25823 357
42167 25924 612
42241 25927 378
42241 25910 368
42244 25934 361
42212 25923 372
42237 25944 423
42045 25895 558
41912 25916 557
41975 25972 232
41951 25702 414
41937 25696 397
41939 25684 397
42004 26052 302
41849 25915 397
42032 25950 258
42028 26006 390
42029 26032 431
41977 26038 419
41969 26001 257
41967 25948 130
42008 25857 94
42048 26021 404
42158 25957 596
42242 25902 215
42159 25923 570
42141 25914 638
42298 25951 367
42223 25947 262
42041 25919 207
42079 26067 372
42068 26066 340
42058 26035 383
42060 26048 381
42050 26067 287
42065 25712 610
41873 25853 422
41881 25871 258
41864 25941 251
42240 25726 390
41925 25867 236
41935 25856 227
41944 25866 254
41937 25861 244
41988 25927 178
41994 25942 196
41960 25903 234
41957 25890 193
41966 25901 185
41972 25885 158
41961 25849 220
41986 25942 184
42185 25901 475
42187 25709 623
42193 25718 499
42244 25697 381
42239 25721 375
42247 25710 361
42231 25702 360
42017 26050 391
42132 26052 442
42233 25992 296
42044 25938 597
42034 25919 510
42154 25857 510
42147 25922 275
41876 26024 269
42270 25934 372
42290 25929 316
42310 25947 328
42436 25865 500
42431 25831 358
42281 25839 256
42152 25831 104
41975 26089 373
41922 26064 378
41940 25680 287
42205 25848 180
42128 25712 216
42168 25746 207
42258 25824 362
42168 25836 119
42130 25700 310
41939 25671 334
41958 25685 394
41947 25676 420
41983 25704 558
42143 25670 377
42130 25662 350
42007 25924 214
42159 25958 184
42300 25735 379
42296 25742 384
42267 25758 357
42107 25700 419
42207 25823 212
42134 25718 233
42041 25929 220
41984 25831 121
42048 25935 239
42029 25973 281
41977 25747 197
41980 25647 368
41995 25659 368
41982 25647 383
41974 25660 367
41959 25652 368
41956 25678 364
41956 25668 368
42255 25773 344
42137 25755 229
41953 25787 629
41965 25772 635
42188 25809 176
41989 25772 673
41971 26043 215
41975 26057 255
42049 25685 526
41979 25717 560
41818 25907 362
42234 25946 495
42043 25978 328
42151 25653 397
42041 25699 566
42035 25698 513
41942 25692 342
42221 25981 336
42220 25981 351
41931 25999 377
41838 26111 320
41828 26141 428
41941 25993 198
42273 25895 212
42296 25934 331
42266 25913 291
41963 26014 313
42093 25985 574
42232 25902 550
42319 25822 372
42097 25699 398
42101 25690 383
41969 25691 453
41971 25679 401
42093 25877 88
42151 25950 137
41890 26011 221
41967 25973 169
42010 25753 192
41927 25755 306
41880 25795 473
41890 25822 552
42073 25854 668
42268 25747 362
42253 25772 407
42015 26000 216
42071 26091 258
42063 26072 190
42060 25785 137
42046 25931 43
42147 25757 553
42037 26055 246
41890 25863 524
41892 25868 555
41824 25880 350
41850 25883 386
41855 25865 353
41903 25975 182
41871 25883 293
41836 25852 482
41857 25845 415
41871 25846 432
41901 25894 487
41867 25862 437
42290 25745 315
42001 25721 434
42017 25842 142
42033 26053 185
42054 26061 390
42025 25656 354
42097 25979 137
42100 25978 156
42138 25927 155
42266 25939 355
41848 25923 324
42127 25914 665
41910 25830 503
41929 25807 585
42068 25802 165
42060 25712 244
42260 25862 559
42313 25895 470
41822 25904 365
41832 25902 364
41842 25889 377
41858 25854 415
41908 25740 427
41921 25748 463
42507 25954 379
42132 25983 233
42204 25994 350
41849 25795 415
41854 25799 368
41852 25796 416
41845 25790 418
41852 25815 384
41973 25984 180
42101 26092 339
42074 26098 354
42106 25962 212
42063 26044 356
42049 26028 368
42065 26047 340
42094 26085 339
42233 26005 327
42230 25863 125
42198 25831 141
42335 25757 377
42328 25767 342
42026 26100 365
42031 26110 500
42201 25679 464
42206 25690 433
42161 25790 182
42099 25944 59
41973 25826 211
42007 25853 232
42246 26033 337
42251 26012 346
42102 26011 192
42064 25689 405
42089 25688 419
42176 25689 463
42168 25716 465
42152 25723 405
42075 25712 368
42044 25699 342
42042 25701 386
42058 25741 306
42006 25869 58
41997 25917 49
41972 26078 350
42018 26071 332
42018 26069 355
41942 26092 335
41945 26096 334
41973 26067 274
42013 25810 553
42484 25923 359
42484 25914 395
42441 25924 424
42113 26000 375
41836 25874 352
42282 25909 313
42288 25951 309
42231 25999 121
42166 25972 189
42106 25961 651
42267 25949 284
42320 25901 595
42430 25893 403
42430 25892 368
42150 25872 679
42131 25849 701
41958 25793 679
41901 25786 537
41957 26019 438
42156 25950 378
41996 25770 91
41987 25949 156
42002 25875 145
41970 25848 175
41965 25852 245
41978 25860 235
42080 25877 617
42060 25872 715
42018 25908 183
42015 25927 158
42035 25973 138
42185 25892 626
41910 26027 271
41914 25942 162
41879 25907 210
42308 25827 325
42311 25818 310
42244 25705 406
41992 26060 168
42210 25904 350
41867 25851 360
41871 25875 368
41924 25911 364
41853 25897 397
41844 25874 373
41856 25866 396
41905 25860 612
42281 25749 409
42301 25750 353
42001 25875 204
42310 25917 245
42319 25941 338
42066 26009 515
42020 25996 558
42121 25957 602
42200 25916 205
42004 26021 592
42022 25993 604
42103 25843 197
41919 26005 247
41940 25993 293
42106 25987 599
42031 25635 357
42023 25751 477
41964 25710 393
41878 25835 321
41865 25835 353
41860 25839 267
41863 25899 297
41825 25871 357
41947 25857 185
41966 25934 202
42306 25728 324
42288 25706 382
42308 25718 346
42283 25743 342
42296 25732 329
42299 25742 306
42080 26097 297
42102 25995 139
42112 25971 93
41891 25705 409
41895 25711 473
42325 25710 319
42252 25917 383
42252 25925 320
42269 25931 386
42248 25929 390
42230 25920 502
42303 25803 309
42282 25824 540
41984 25883 364
41954 25892 402
42185 25735 373
42193 25736 380
42183 25736 377
42118 25940 548
42207 25990 452
42224 25994 355
42221 25986 323
42201 25955 278
42008 26104 248
41999 26042 219
42014 26044 197
41981 26074 207
41988 26037 257
42008 25978 233
42098 25927 230
42066 25915 260
42025 25950 218
42163 25884 673
42189 25882 611
42338 25816 280
42075 25664 462
41938 25673 634
42010 25690 373
41858 25799 409
41881 25801 442
41866 25784 386
41987 25800 530
42045 25819 331
42030 25809 500
41994 25822 375
41766 26165 457
41957 26058 208
42403 25857 409
42412 25860 382
42320 25934 341
42307 25937 354
42302 25925 324
42280 25860 217
42260 25891 580
42235 25898 627
42321 25916 324
42266 25879 213
42282 25899 232
42271 25879 231
42174 25744 245
42156 25996 671
42276 25905 364
42281 25889 456
42037 26038 421
42042 26027 368
42176 25741 203
42171 25716 299
42198 25700 374
42199 25678 445
42198 25819 606
42176 25829 678
41956 25759 638
41931 25757 574
41997 25745 594
42135 25813 707
42113 25872 183
42030 25726 478
42012 25726 396
42062 25965 247
42051 25975 269
42052 26029 199
42017 26091 370
41914 26103 337
42032 25898 102
42055 25748 178
42095 25868 137
42097 25677 549
42069 25667 404
41944 26073 306
41949 26076 226
41938 26004 218
41949 25948 624
41918 26003 233
41993 25681 362
41973 25684 353
42012 25845 493
42083 25704 507
42095 25717 562
42117 25727 487
42148 25743 581
42161 25686 489
42249 25712 321
42235 25707 456
42236 25725 375
42275 25701 284
42287 25858 282
42273 25866 262
42240 25853 229
42266 25854 245
42264 25865 246
42244 25842 225
42243 25857 211
42201 25890 222
42143 25848 639
42289 25936 341
42280 25949 342
42288 25952 335
41925 26091 375
42156 25889 154
42285 25834 378
41887 26009 291
41917 25968 214
41905 25977 201
41891 26027 269
41905 25878 119
41908 25807 159
41877 25886 128
41891 25843 128
42373 25846 438
41908 25981 235
42273 25712 335
42301 25698 441
42277 25732 435
41917 25917 487
41857 25841 341
42133 25813 594
42250 25870 222
42249 25872 229
42267 25863 235
42262 25860 233
42251 25861 222
42289 25850 277
42312 25811 321
42315 25808 308
42199 25846 556
42287 25925 415
42298 25924 385
42305 25908 313
42293 25920 351
42165 25909 676
41989 25904 525
42046 25818 604
42153 25738 435
42207 25693 456
42101 25808 191
42028 25650 369
42234 25722 389
42208 25734 386
42171 26009 315
42154 25748 183
42178 25844 126
42192 25854 81
42186 25858 100
42206 25895 165
42149 25722 223
42145 25750 177
42143 25662 335
42458 25868 387
42470 25887 415
42468 25864 447
41960 25934 170
42008 25885 276
41999 25988 358
41945 25976 150
41941 26006 178
42206 25851 150
42227 25907 209
42172 25989 620
42194 25989 443
42259 25997 361
42274 25997 350
42179 25942 152
42218 25915 169
42202 25882 124
42197 25861 124
42176 25840 145
42135 25849 119
41973 25669 351
41887 25774 183
41919 25754 187
42049 25666 503
42153 25669 389
42162 25694 364
42280 25845 430
42203 25790 215
42202 25847 218
41914 25759 517
41876 25767 379
41887 25829 195
41922 25786 679
41890 25837 501
41992 26111 397
42015 26099 346
42117 25910 92
42245 25784 310
42132 26121 345
42303 25838 298
42348 25758 334
42308 25777 421
42340 25779 257
42347 25793 286
42324 25757 367
42330 25767 488
42322 25767 308
41948 25941 306
41944 25910 403
41976 25933 252
41899 25918 390
41878 25952 328
41876 25914 307
41892 25872 386
41881 25910 449
42283 25935 623
42277 25848 273
42333 25821 468
41994 25825 193
41997 25854 201
42047 25900 616
41861 25919 269
41874 25916 289
41918 25944 307
42146 25775 163
42095 25917 85
42056 25982 160
42076 25995 338
42147 25980 478
42077 25985 339
42286 25783 302
41928 25958 358
41907 25957 350
41918 25976 225
42008 25985 109
42110 25696 254
42111 25670 419
42068 25911 66
41996 25958 163
42072 25931 153
41844 25814 360
41939 25810 257
42083 26072 222
42057 26029 181
42066 26072 228
42078 26091 291
42079 26100 267
42162 25920 627
42269 25848 336
42194 25968 518
42295 25939 259
41929 25980 196
41921 25976 196
41965 25674 470
41971 25681 411
41930 25691 364
41921 25695 383
41939 25697 462
41921 25701 388
41885 25773 277
41966 25716 478
42203 25780 667
42014 26035 254
42067 26081 339
41904 26050 298
42245 25919 558
42214 25919 569
41883 26051 353
41998 25959 174
42248 25785 258
42176 25759 637
42180 25705 302
42171 25679 375
42180 25746 201
42253 25871 129
42266 25931 255
42266 25860 199
42234 25773 178
42212 25734 217
42173 25835 82
42189 25919 145
42197 25886 132
42244 25799 148
42190 25750 211
42105 25675 361
42156 25696 290
42180 25671 359
42091 25739 240
42121 25743 293
42291 25912 222
42287 25918 230
42274 25935 243
42284 25915 268
42280 25928 245
42284 25909 267
42258 25890 205
42220 25879 237
42247 25898 228
42257 25911 238
42284 25914 305
42293 25904 284
42282 25916 298
42293 25923 298
42271 25903 309
42034 25755 423
42008 25831 286
41987 25823 394
42054 25735 398
42055 25734 560
42002 25785 287
42109 25680 375
42102 25737 314
42051 25741 327
42062 25737 359
42065 25730 374
42030 25752 383
41963 25767 554
42093 25681 364
42042 25832 134
42064 25813 145
42057 25817 161
41990 25861 218
41938 25736 331
42071 26061 270
42082 25990 171
42079 26024 210
42079 26046 237
42067 26056 248
42037 25736 196
41979 25660 345
41982 25667 351
42060 25686 296
42125 25714 266
42116 25869 277
42032 26086 387
42143 26050 590
42136 26040 612
42139 26029 616
42084 26105 360
42108 26107 348
41997 25754 589
42094 25711 533
42221 25717 545
42246 25717 591
42208 25693 474
42225 25705 500
42192 25691 505
42196 25696 515
42265 25816 654
42182 25864 574
42193 25974 187
42185 25913 187
42219 25850 213
42223 25869 224
42218 25867 196
42200 25864 200
42185 25846 222
42193 25767 365
42033 25901 131
42224 25972 381
42021 26071 289
41984 26023 210
42000 26017 163
42021 26006 202
41992 26004 141
41994 25909 63
41999 25974 104
41953 26011 181
41968 26023 198
41944 25985 142
41941 25918 76
41923 26012 187
41933 26047 297
41936 26058 328
41911 26065 345
42467 25869 445
42272 25877 234
42240 25874 234
42022 26082 284
41982 25978 148
41987 26023 217
41961 26000 175
41966 25770 149
41981 25724 239
41974 25796 126
41973 25747 186
41983 25697 247
42045 25646 370
41884 25842 606
41907 25914 289
41837 25844 464
41908 25829 504
41867 25802 419
41914 25792 285
41888 25871 255
41898 25893 266
41895 25880 257
41901 25887 238
41923 25891 185
41918 25889 229
41907 25846 299
41913 25832 265
41963 25822 213
42167 25870 617
42233 25885 403
42281 25892 384
42268 25873 368
42257 25813 486
42264 25857 433
42262 25837 482
42275 25854 368
42297 25860 390
42295 25864 393
42298 25863 329
42307 25871 361
42082 26118 359
42019 25939 112
42010 25873 52
41938 26087 357
41930 26089 363
41956 26029 223
42441 25893 416
42218 25788 621
42478 25919 332
42537 25917 346
42519 25902 420
42506 25893 368
42191 25615 281
42252 25949 467
42247 25947 407
42282 25952 342
42290 25923 308
42324 25800 381
42373 25854 287
42319 25834 377
41985 25678 452
41964 25688 372
42030 25682 461
42031 26107 363
42132 26053 534
42061 26128 295
41956 25806 233
41969 25829 230
41964 25858 206
41903 25811 306
41904 25780 578
41996 25828 136
41912 26014 181
42316 25848 548
42109 25881 74
42192 25983 239
42129 26029 519
42137 26048 548
42007 26019 169
41956 25923 139
41955 25921 117
41918 25909 156
41898 25923 233
41989 26017 154
42006 26048 204
42000 26051 246
42003 26016 166
42020 26017 170
42038 26017 191
42071 26044 624
42063 26038 642
42175 25726 427
42201 25893 306
42290 25782 350
42082 25999 185
42113 26056 281
42101 26098 359
42150 26052 333
42156 26042 381
42199 26002 354
41944 26076 340
41942 26086 293
42015 26097 297
42077 26105 378
42115 25795 316
41996 26009 151
42062 25840 255
42089 25803 344
42013 25901 151
41926 25921 214
41961 25929 171
42104 25801 646
41916 25843 377
42014 25994 169
42076 25908 116
42050 25984 156
41944 25675 386
42216 25945 244
42194 25964 549
42227 25922 583
42026 26102 343
42043 26104 354
41965 26103 367
42020 26018 230
42065 26092 322
42033 26047 297
42029 26029 276
42082 26009 111
42240 25955 551
41910 26060 298
42021 26016 183
41965 25983 121
41968 25982 258
42169 25958 236
41975 26063 537
42031 26053 367
42289 25913 367
42169 25981 650
42004 26055 595
41886 25987 567
41899 25922 468
41840 25893 324
41946 26073 244
42076 25797 315
42053 25825 401
42086 25806 478
42041 25905 250
42030 25851 258
42027 25908 177
41946 25819 605
41868 25896 313
42139 25904 653
41823 25915 315
41913 25951 217
41856 25906 289
42004 25924 700
41914 25970 231
41883 25853 223
41878 25769 262
41941 25951 102
41965 25864 71
41957 25786 132
41943 25802 140
41937 25806 161
41968 25824 151
41962 25917 105
41953 25975 265
42065 25852 119
42068 25856 93
42083 25789 158
42025 25808 170
42009 25860 116
42010 25854 112
41921 25906 307
41959 25846 238
41911 26000 272
41937 25977 240
41936 25978 223
41947 25918 166
41997 25892 155
42000 25999 189
41982 25979 196
42028 25969 137
42068 25834 93
42078 25838 86
42076 25888 106
42055 25912 121
42054 25942 119
42076 26005 200
42084 25945 118
42027 25739 583
42005 25762 512
42038 25859 66
42028 25878 89
42036 25892 76
42060 25882 50
42114 25699 257
42166 25631 328
42265 25806 181
42183 25671 334
42284 25834 210
42293 25820 251
42299 25807 255
42149 25759 141
42103 25725 214
42094 25718 233
42064 25657 445
42005 25692 364
41954 25688 255
41947 25969 232
41954 25938 186
41933 25834 132
41926 25831 86
41987 26102 392
41803 25884 346
42022 25836 455
42265 25909 361
42109 25987 165
42033 26063 370
41912 26072 362
42104 26005 664
42258 25940 390
42256 25939 405
42251 25943 422
42267 25950 379
42319 25801 335
42297 25749 352
42287 25745 390
42288 25754 344
42079 26039 359
42088 26058 368
42071 26047 334
42085 26047 309
42055 26041 364
42251 25894 281
42203 25917 480
42225 25968 540
42142 25942 618
42241 25963 368
42248 25985 463
42160 26015 473
42159 26018 286
42197 26005 403
42262 26003 402
42249 25986 394
42281 25995 384
42243 25960 518
42166 26014 580
42099 26069 525
42080 25999 138
42075 26078 299
42106 26039 232
42197 25889 298
42212 25871 232
42260 25883 331
42306 25935 280
42278 25913 346
42252 25887 277
42174 25904 172
42132 25926 634
